ply
format ascii 1.0
comment Author: CloudCompare (TELECOM PARISTECH/EDF R&D)
obj_info Generated by CloudCompare!
element vertex 757
property float x
property float y
property float z
property uchar red
property uchar green
property uchar blue
property float nx
property float ny
property float nz
end_header
23.4086 -4.44812 245.735 18 38 58 0.375252 0.527952 -0.761875 
23.6986 -4.4335 245.887 15 35 50 0.375252 0.527952 -0.761875 
23.9888 -4.41888 246.039 30 67 86 0.375252 0.527952 -0.761875 
24.2789 -4.40429 246.193 21 37 51 0.367701 0.567076 -0.737035 
24.594 -4.38652 246.218 18 33 42 -0.012358 0.572589 -0.81975 
24.9123 -4.36834 246.226 17 36 47 -0.012358 0.572589 -0.81975 
25.2304 -4.35017 246.234 14 35 54 -0.012358 0.572589 -0.81975 
25.5476 -4.33212 246.246 11 31 51 0.583561 0.603859 -0.542965 
25.8113 -4.32095 246.543 15 36 56 0.583561 0.603859 -0.542965 
26.0756 -4.30977 246.839 22 48 64 0.583561 0.603859 -0.542965 
26.336 -4.29913 247.16 16 31 33 0.505118 0.748628 -0.429433 
26.5793 -4.29077 247.578 10 25 29 0.596206 0.720347 -0.354456 
26.8171 -4.2832 248.031 9 25 32 0.742225 0.539055 -0.398147 
28.5841 -4.29592 256.515 16 30 37 0.944203 0.047661 -0.325898 
28.8064 -4.2918 257.158 11 25 36 0.944286 0.039719 -0.32672 
29.0299 -4.28765 257.804 15 29 34 0.944286 0.039719 -0.32672 
29.2494 -4.28418 258.483 10 18 26 0.952409 0.0392094 -0.302292 
29.4677 -4.28101 259.179 13 23 28 0.938555 -0.209958 -0.273919 
17.5978 11.4571 253.861 21 39 48 0.0889728 0.74533 -0.660733 
24.9268 11.6103 257.324 6 16 21 0.545668 0.630137 -0.552426 
24.6583 11.5817 256.972 9 20 27 0.640733 0.580191 -0.502832 
24.3939 11.5525 256.602 8 17 29 0.640733 0.580191 -0.502832 
24.1301 11.5234 256.233 9 16 24 0.640733 0.580191 -0.502832 
23.9052 11.486 255.661 14 27 36 0.808924 0.503015 -0.304332 
23.6933 11.4463 255.028 12 29 40 0.558484 0.809726 -0.180107 
20.8132 11.2976 254.49 22 53 71 0.237266 0.705512 -0.667801 
20.7708 -4.28699 245.993 17 47 60 -0.358907 0.352746 -0.86415 
21.121 -4.26531 245.857 20 54 62 -0.358907 0.352746 -0.86415 
21.4706 -4.24367 245.721 32 64 65 -0.358907 0.352746 -0.86415 
21.8196 -4.22207 245.585 27 53 65 -0.358907 0.352746 -0.86415 
22.1642 -4.20094 245.467 15 38 52 0.26263 0.56143 -0.784743 
22.4625 -4.18523 245.577 13 41 59 0.264576 0.533849 -0.803122 
22.7609 -4.1695 245.686 22 54 69 0.264576 0.533849 -0.803122 
23.0595 -4.15377 245.795 15 38 57 0.264576 0.533849 -0.803122 
23.3533 -4.1386 245.928 16 32 52 0.383515 0.540184 -0.749078 
23.6425 -4.12401 246.086 25 57 70 0.383515 0.540184 -0.749078 
23.9319 -4.1094 246.244 26 53 69 0.383515 0.540184 -0.749078 
24.2235 -4.09452 246.391 14 30 44 0.172293 0.117754 -0.977982 
24.5378 -4.07695 246.422 18 30 47 0.0209708 0.669667 -0.742366 
24.8531 -4.05922 246.447 24 40 53 0.0209708 0.669667 -0.742366 
25.1684 -4.04151 246.472 9 29 44 0.0209708 0.669667 -0.742366 
25.4703 -4.02541 246.566 13 33 48 0.573823 0.677547 -0.460062 
25.727 -4.01483 246.902 15 35 50 0.573823 0.677547 -0.460062 
25.9844 -4.00423 247.238 38 61 69 0.573823 0.677547 -0.460062 
26.2427 -3.99356 247.574 11 24 26 0.736429 0.488195 -0.468336 
26.4909 -3.98417 247.967 8 22 28 0.69761 0.551095 -0.457859 
26.7404 -3.9747 248.359 10 28 34 0.69761 0.551095 -0.457859 
28.5734 -3.96893 256.474 8 22 28 0.946675 -0.0316826 -0.320628 
28.7942 -3.96426 257.126 11 24 34 0.946396 -0.0395928 -0.320574 
29.0163 -3.95954 257.78 20 33 40 0.946396 -0.0395928 -0.320574 
29.2572 -3.95246 258.328 9 19 29 0.904581 -0.0497318 -0.423392 
29.4996 -3.94529 258.875 7 16 24 0.798655 -0.51603 -0.309618 
29.7359 -3.939 259.468 12 20 23 0.78944 -0.521509 -0.32375 
20.507 11.2783 254.361 21 50 73 0.237266 0.705512 -0.667801 
20.2009 11.259 254.232 15 50 67 0.237266 0.705512 -0.667801 
19.8979 11.2392 254.089 20 57 74 0.399707 0.390228 -0.829431 
19.5818 11.2219 254.01 16 40 56 0.17901 0.382365 -0.906506 
19.2638 11.205 253.94 18 43 64 0.17901 0.382365 -0.906506 
18.9457 11.188 253.871 17 43 61 0.17901 0.382365 -0.906506 
18.6284 11.171 253.797 28 52 69 0.238974 0.390373 -0.889101 
20.7322 -3.97415 246.096 16 45 61 -0.341831 0.00882958 -0.93972 
21.0806 -3.95296 245.969 34 60 65 -0.341831 0.00882958 -0.93972 
21.4284 -3.93181 245.843 25 54 63 -0.341831 0.00882958 -0.93972 
21.7762 -3.91062 245.713 19 40 59 -0.367587 0.304053 -0.878881 
22.1154 -3.89036 245.624 13 38 52 0.294344 0.462541 -0.836312 
22.4137 -3.87461 245.734 33 68 80 0.298613 0.352634 -0.886837 
22.7128 -3.85878 245.841 32 54 69 0.298613 0.352634 -0.886837 
23.012 -3.84294 245.948 14 34 49 0.298613 0.352634 -0.886837 
23.3095 -3.82729 246.063 13 32 49 0.337347 0.355665 -0.871607 
23.6061 -3.81176 246.185 19 54 66 0.337347 0.355665 -0.871607 
23.9028 -3.79622 246.306 13 31 51 0.337347 0.355665 -0.871607 
24.2 -3.78062 246.425 13 28 44 0.172293 0.117754 -0.977982 
24.5026 -3.76443 246.517 23 43 58 0.182621 0.701327 -0.68905 
24.8044 -3.74833 246.613 19 38 55 0.182621 0.701327 -0.68905 
25.1062 -3.73222 246.709 17 32 48 0.182621 0.701327 -0.68905 
25.3912 -3.71805 246.895 14 30 45 0.520732 0.691519 -0.500639 
25.6567 -3.70615 247.187 10 37 51 0.520732 0.691519 -0.500639 
25.9225 -3.69424 247.48 28 43 45 0.520732 0.691519 -0.500639 
26.1815 -3.68316 247.813 14 22 25 0.688156 0.59198 -0.419526 
26.4262 -3.67378 248.227 8 20 25 0.688156 0.59198 -0.419526 
26.6717 -3.66437 248.643 11 27 33 0.688156 0.59198 -0.419526 
28.5619 -3.64215 256.439 15 31 38 0.945233 0.0163622 -0.325986 
28.7841 -3.63654 257.082 9 23 30 0.945233 0.0163622 -0.325986 
29.0083 -3.63079 257.722 13 31 39 0.942789 -0.0370975 -0.331319 
29.2527 -3.62266 258.249 9 23 30 0.892055 -0.0475219 -0.449422 
29.5022 -3.61398 258.752 3 11 21 0.884364 -0.185643 -0.428295 
29.7509 -3.60546 259.266 8 15 21 0.919282 -0.167526 -0.356169 
18.315 11.1532 253.706 22 53 64 0.238974 0.390373 -0.889101 
18.0017 11.1354 253.614 17 43 53 0.238974 0.390373 -0.889101 
17.6883 11.1176 253.523 8 27 38 0.238974 0.390373 -0.889101 
25.5458 11.3248 257.683 4 19 28 0.735567 0.285611 -0.614302 
25.2736 11.2971 257.346 8 20 25 0.735567 0.285611 -0.614302 
25.002 11.2696 257.009 9 19 29 0.735567 0.285611 -0.614302 
24.7418 11.2398 256.615 9 22 31 0.525142 0.754176 -0.394265 
20.7024 -3.66015 246.158 22 51 60 -0.298444 0.346435 -0.889333 
21.0469 -3.63962 246.05 25 55 62 -0.298444 0.346435 -0.889333 
21.3909 -3.61913 245.942 32 61 70 -0.298444 0.346435 -0.889333 
21.7346 -3.59865 245.834 17 42 54 -0.300967 0.370538 -0.878704 
22.0641 -3.57963 245.793 12 44 57 0.241894 0.506899 -0.82737 
22.3653 -3.56354 245.89 36 68 81 0.245847 0.426839 -0.870269 
22.6674 -3.54735 245.983 20 42 59 0.245847 0.426839 -0.870269 
22.9695 -3.53117 246.076 14 35 54 0.245847 0.426839 -0.870269 
23.2707 -3.51509 246.174 16 39 58 0.266192 0.43047 -0.86246 
23.5715 -3.49905 246.274 15 37 54 0.266192 0.43047 -0.86246 
23.8724 -3.48301 246.374 13 33 48 0.266192 0.43047 -0.86246 
24.1712 -3.46719 246.486 17 32 48 0.386331 0.195336 -0.901439 
24.4643 -3.45198 246.627 23 58 75 0.371243 0.523632 -0.766804 
24.7558 -3.43696 246.778 27 55 73 0.371243 0.523632 -0.766804 
25.0475 -3.42193 246.929 15 35 50 0.371243 0.523632 -0.766804 
25.3256 -3.40837 247.153 8 30 47 0.588866 0.511251 -0.625987 
25.5963 -3.39562 247.418 38 70 78 0.588866 0.511251 -0.625987 
25.8676 -3.38285 247.683 20 32 37 0.588866 0.511251 -0.625987 
26.1226 -3.37187 248.039 9 18 23 0.707708 0.596051 -0.379305 
26.3598 -3.36288 248.496 3 16 25 0.707708 0.596051 -0.379305 
26.5977 -3.35386 248.955 11 23 28 0.707708 0.596051 -0.379305 
28.5439 -3.31618 256.442 11 28 39 0.93457 0.0922537 -0.343611 
28.7702 -3.30937 257.06 10 29 40 0.93457 0.0922537 -0.343611 
28.9992 -3.30232 257.671 17 34 44 0.930941 -0.0675363 -0.358869 
29.2497 -3.29289 258.16 6 18 28 0.864589 -0.0860358 -0.495059 
29.5052 -3.28293 258.625 11 18 23 0.847525 -0.27533 -0.453756 
29.7609 -3.27302 259.095 11 18 23 0.847525 -0.27533 -0.453756 
24.4835 11.2097 256.214 4 15 24 0.525142 0.754176 -0.394265 
24.2277 11.1794 255.805 8 19 26 0.749645 0.636202 -0.182429 
24.0577 11.1314 254.944 12 27 36 0.749645 0.636202 -0.182429 
23.8856 11.0844 254.106 11 25 36 0.903846 0.353042 -0.241709 
20.8819 10.9618 254.236 23 55 75 0.0849623 0.583216 -0.807862 
20.5591 10.9459 254.191 15 45 65 0.0849623 0.583216 -0.807862 
20.237 10.9297 254.142 20 52 74 0.22605 0.0130186 -0.974029 
21.3314 -3.30832 246.148 23 59 67 -0.245249 0.576414 -0.779487 
21.6721 -3.28838 246.055 16 46 59 -0.245249 0.576414 -0.779487 
21.9942 -3.27024 246.052 25 60 72 0.130321 0.693547 -0.708526 
22.3007 -3.25362 246.125 26 54 67 0.130321 0.693547 -0.708526 
22.6111 -3.23661 246.178 14 35 54 0.124583 0.462531 -0.877806 
22.9215 -3.2196 246.231 16 35 53 0.124583 0.462531 -0.877806 
23.2236 -3.2034 246.326 14 36 53 0.264286 0.480661 -0.836133 
23.5238 -3.18739 246.43 11 28 46 0.264286 0.480661 -0.836133 
23.8242 -3.17138 246.534 13 33 48 0.263893 0.483032 -0.834889 
24.1225 -3.15557 246.649 15 32 49 0.386582 0.490102 -0.781252 
24.4137 -3.14047 246.801 13 37 54 0.389606 0.450532 -0.803261 
24.7056 -3.12532 246.952 13 35 50 0.389606 0.450532 -0.803261 
24.9976 -3.11016 247.102 14 31 47 0.389606 0.450532 -0.803261 
25.2668 -3.0973 247.374 7 36 52 0.679959 0.430585 -0.593509 
25.5295 -3.08513 247.684 33 60 67 0.679959 0.430585 -0.593509 
25.7935 -3.07285 247.99 16 32 39 0.529764 0.66767 -0.523036 
26.0419 -3.0622 248.384 10 19 25 0.773732 0.444692 -0.451208 
26.285 -3.05212 248.811 15 29 35 0.773732 0.444692 -0.451208 
26.5288 -3.042 249.24 12 22 25 0.773732 0.444692 -0.451208 
28.5212 -2.99071 256.472 13 30 41 0.915307 0.141571 -0.377056 
28.7554 -2.98234 257.044 14 33 43 0.915307 0.141571 -0.377056 
28.9909 -2.97389 257.615 14 36 44 0.919696 0.0381562 -0.390772 
29.2476 -2.96325 258.066 9 22 31 0.819815 -0.289992 -0.49377 
29.5091 -2.95213 258.494 10 18 26 0.819815 -0.289992 -0.49377 
29.7713 -2.94099 258.922 11 21 24 0.819815 -0.289992 -0.49377 
30.0233 -2.931 259.42 11 18 23 0.869201 -0.265463 -0.417156 
19.9198 10.9127 254.068 25 55 73 0.22605 0.0130186 -0.974029 
19.6048 10.8952 253.984 16 41 62 0.262684 0.0133158 -0.96479 
19.2993 10.876 253.854 15 40 61 0.269045 0.638384 -0.721167 
18.9943 10.8567 253.723 12 36 53 0.269045 0.638384 -0.721167 
18.693 10.8367 253.575 15 41 57 0.376806 0.643368 -0.666404 
18.3999 10.8154 253.389 40 70 81 0.376806 0.643368 -0.666404 
21.9535 -2.95751 246.168 28 63 80 0.188218 0.220256 -0.957111 
22.2617 -2.94073 246.233 25 49 66 0.188218 0.220256 -0.957111 
22.5689 -2.92404 246.303 12 34 49 0.196825 0.366354 -0.90942 
22.8756 -2.90741 246.376 17 38 55 0.196825 0.366354 -0.90942 
23.1705 -2.89185 246.507 16 35 53 0.373334 0.382706 -0.845078 
23.4646 -2.87638 246.644 11 29 44 0.25443 0.643187 -0.722202 
23.7625 -2.86056 246.762 12 32 47 0.25443 0.643187 -0.722202 
24.0591 -2.84486 246.888 19 35 56 0.289962 0.645605 -0.706481 
24.3541 -2.82933 247.022 17 35 48 0.308161 0.497798 -0.8107 
24.6516 -2.81356 247.144 14 31 42 0.308161 0.497798 -0.8107 
24.9492 -2.79778 247.267 14 32 45 0.308161 0.497798 -0.8107 
25.2165 -2.78486 247.55 19 52 70 0.653713 0.482303 -0.583132 
25.4801 -2.7723 247.856 27 47 49 0.653713 0.482303 -0.583132 
25.7437 -2.75976 248.166 22 36 41 0.679959 0.430585 -0.593509 
25.9903 -2.74886 248.571 10 20 30 0.84471 0.108296 -0.524153 
26.2382 -2.73785 248.973 13 27 32 0.84471 0.108296 -0.524153 
26.4869 -2.72682 249.376 16 25 26 0.84471 0.108296 -0.524153 
28.4885 -2.66613 256.562 10 28 41 0.869826 0.287911 -0.400638 
28.7297 -2.65642 257.092 15 35 43 0.869826 0.287911 -0.400638 
28.9718 -2.64668 257.624 14 33 43 0.869826 0.287911 -0.400638 
29.2339 -2.635 258.042 7 22 33 0.806977 -0.166805 -0.566537 
29.5031 -2.62266 258.423 11 18 23 0.806977 -0.166805 -0.566537 
29.7729 -2.61028 258.804 13 21 24 0.806977 -0.166805 -0.566537 
30.0264 -2.59959 259.292 8 20 25 0.897231 -0.137926 -0.419466 
18.1071 10.7941 253.203 18 44 55 0.376806 0.643368 -0.666404 
17.8145 10.7728 253.018 12 34 49 0.376806 0.643368 -0.666404 
25.8687 11.0166 257.84 22 40 42 0.62846 0.577914 -0.520628 
25.5995 10.9886 257.483 8 21 30 0.62846 0.577914 -0.520628 
25.3309 10.9606 257.128 11 20 27 0.62846 0.577914 -0.520628 
25.0648 10.9323 256.762 8 22 28 0.745773 0.485658 -0.456025 
24.8175 10.9003 256.299 13 28 30 0.680625 0.614384 -0.399101 
19.6363 -2.78059 247.903 21 47 59 -0.603619 0.307443 -0.73561 
20.0266 -2.75705 247.592 24 50 60 -0.606538 0.281778 -0.743447 
20.4154 -2.73361 247.284 29 58 65 -0.606538 0.281778 -0.743447 
20.803 -2.71025 246.977 34 68 76 -0.606538 0.281778 -0.743447 
21.1894 -2.68696 246.67 37 74 86 -0.606538 0.281778 -0.743447 
21.5745 -2.66374 246.365 36 73 85 -0.606538 0.281778 -0.743447 
21.9016 -2.6454 246.34 28 64 78 0.11638 0.59663 -0.794033 
22.2113 -2.62851 246.398 24 45 62 0.11638 0.59663 -0.794033 
22.5207 -2.61166 246.458 9 34 55 0.120174 0.651313 -0.749233 
22.8287 -2.59492 246.525 19 49 67 0.322504 0.672558 -0.666076 
23.1191 -2.57968 246.681 15 37 54 0.322504 0.672558 -0.666076 
23.4093 -2.56446 246.838 11 30 43 0.340413 0.643364 -0.685712 
23.6995 -2.54924 246.997 14 36 53 0.340413 0.643364 -0.685712 
23.9954 -2.53355 247.128 14 34 49 0.237299 0.636463 -0.733897 
24.2951 -2.51753 247.239 15 30 39 0.237299 0.636463 -0.733897 
24.5919 -2.50178 247.367 14 27 34 0.2186 0.776727 -0.590685 
24.8865 -2.4862 247.507 12 32 47 0.436814 0.767288 -0.469534 
25.156 -2.47282 247.78 13 37 54 0.436814 0.767288 -0.469534 
25.4246 -2.45952 248.061 19 42 47 0.648259 0.500086 -0.574173 
25.6886 -2.44665 248.37 13 22 30 0.648259 0.500086 -0.574173 
25.9426 -2.43466 248.736 6 22 28 0.713271 0.483827 -0.507104 
28.4397 -2.34277 256.747 19 40 50 0.677541 0.590975 -0.437821 
28.6999 -2.33074 257.165 13 35 50 0.677541 0.590975 -0.437821 
28.9608 -2.31869 257.584 20 45 59 0.677541 0.590975 -0.437821 
29.2294 -2.30597 257.963 10 22 34 0.737035 -0.367701 -0.567076 
29.5037 -2.29275 258.311 9 22 31 0.737035 -0.367701 -0.567076 
29.7786 -2.27951 258.66 12 18 26 0.737035 -0.367701 -0.567076 
30.0385 -2.26767 259.107 10 21 28 0.852256 -0.317083 -0.416074 
24.572 10.8682 255.831 9 18 31 0.680625 0.614384 -0.399101 
24.341 10.8334 255.292 8 24 32 0.804501 0.539965 -0.247419 
24.1461 10.7916 254.567 10 21 28 0.804501 0.539965 -0.247419 
23.9506 10.7504 253.854 9 25 38 0.86692 -0.37899 -0.323753 
20.9403 10.6287 254.033 14 45 63 0.0767587 0.378407 -0.922451 
20.6155 10.6131 253.999 23 50 71 0.0767587 0.378407 -0.922451 
20.2901 10.5976 253.967 19 53 68 0.0693825 0.420376 -0.904693 
21.8445 -2.33324 246.536 33 68 79 0.194499 0.455811 -0.868566 
22.1506 -2.31666 246.614 16 40 56 0.194499 0.455811 -0.868566 
22.456 -2.30014 246.695 22 61 75 0.181324 0.784723 -0.592732 
22.7538 -2.28421 246.815 24 55 70 0.227681 0.788365 -0.571526 
23.0471 -2.26865 246.958 14 35 47 0.323207 0.667529 -0.670777 
23.3381 -2.25326 247.113 16 34 47 0.323207 0.667529 -0.670777 
23.6293 -2.23787 247.269 15 35 50 0.323207 0.667529 -0.670777 
23.9222 -2.22235 247.417 17 33 46 0.304514 0.665421 -0.681532 
24.2156 -2.20679 247.563 12 25 39 0.304514 0.665421 -0.681532 
24.5131 -2.19091 247.689 28 52 62 0.33488 0.296182 -0.894501 
24.8061 -2.17539 247.839 12 32 45 0.600509 0.299454 -0.741429 
25.0841 -2.16107 248.07 17 38 51 0.600509 0.299454 -0.741429 
25.3634 -2.14666 248.296 16 37 42 0.566794 0.386077 -0.727797 
28.4104 -2.0173 256.817 19 40 50 0.720786 -0.216392 -0.658515 
28.6902 -2.00321 257.119 17 41 44 0.720786 -0.216392 -0.658515 
28.9705 -1.98909 257.421 14 38 48 0.720786 -0.216392 -0.658515 
29.2466 -1.97534 257.752 5 22 33 0.733032 -0.391934 -0.555924 
29.5202 -1.96181 258.103 15 30 39 0.733032 -0.391934 -0.555924 
29.7944 -1.94826 258.455 10 21 28 0.733032 -0.391934 -0.555924 
30.0593 -1.93551 258.869 15 26 33 0.831955 -0.347566 -0.432491 
30.3143 -1.92362 259.35 11 26 30 0.831955 -0.347566 -0.432491 
19.9646 10.5821 253.936 15 38 57 0.0693825 0.420376 -0.904693 
19.6618 10.5625 253.793 15 38 57 0.361174 0.456639 -0.81304 
19.3621 10.5423 253.637 15 37 54 0.343252 0.610045 -0.714159 
19.0635 10.5221 253.477 13 37 54 0.343252 0.610045 -0.714159 
18.7698 10.501 253.294 18 42 59 0.424696 0.61123 -0.667856 
18.4811 10.4791 253.089 24 56 69 0.424696 0.61123 -0.667856 
17.7024 -2.25335 249.144 33 68 80 -0.336588 -0.124006 -0.933451 
18.0586 -2.23331 249.013 28 68 78 -0.336588 -0.124006 -0.933451 
18.4141 -2.21331 248.882 48 97 114 -0.336588 -0.124006 -0.933451 
18.7691 -2.19335 248.751 29 75 95 -0.336588 -0.124006 -0.933451 
19.1251 -2.1733 248.613 22 54 73 -0.361977 0.601111 -0.712488 
21.7998 -2.01966 246.672 38 75 87 0.518403 -0.104829 -0.848687 
22.0868 -2.00445 246.845 29 70 84 0.518403 -0.104829 -0.848687 
22.3739 -1.98923 247.018 42 85 94 0.518403 -0.104829 -0.848687 
22.6621 -1.97394 247.188 21 43 60 0.24485 0.687161 -0.684002 
22.9599 -1.95797 247.311 17 35 48 0.24485 0.687161 -0.684002 
23.2578 -1.94198 247.434 16 35 53 0.24485 0.687161 -0.684002 
23.5559 -1.92599 247.556 15 32 48 0.175891 0.68062 -0.71121 
23.8604 -1.90955 247.647 10 22 34 0.175891 0.68062 -0.71121 
24.1648 -1.8931 247.738 11 22 31 0.175891 0.68062 -0.71121 
24.4732 -1.87636 247.808 19 39 52 0.135103 -0.130234 -0.982235 
24.7682 -1.8606 247.949 11 30 43 0.79343 -0.0946293 -0.60126 
25.0302 -1.84724 248.265 13 35 50 0.492431 0.696081 -0.522478 
25.3008 -1.83327 248.538 20 37 41 0.492431 0.696081 -0.522478 
28.4148 -1.68911 256.687 25 45 53 0.708687 -0.386407 -0.590298 
28.691 -1.67499 257.009 20 47 56 0.708687 -0.386407 -0.590298 
28.9682 -1.66081 257.329 15 44 51 0.730724 -0.172384 -0.66055 
29.2467 -1.64654 257.645 11 23 35 0.76097 -0.16556 -0.627307 
29.529 -1.632 257.942 24 46 56 0.580251 -0.603935 -0.546417 
29.8135 -1.6173 258.229 11 24 34 0.580251 -0.603935 -0.546417 
30.0857 -1.60355 258.595 18 27 33 0.792599 -0.507583 -0.337855 
30.329 -1.592 259.147 18 33 42 0.792599 -0.507583 -0.337855 
18.1926 10.4572 252.885 12 35 47 0.424696 0.61123 -0.667856 
25.9337 10.6782 257.575 10 32 35 0.682909 0.465848 -0.562691 
25.6638 10.6508 257.224 10 18 28 0.682909 0.465848 -0.562691 
25.3944 10.6234 256.875 6 22 28 0.653979 0.516122 -0.553108 
25.1308 10.5951 256.497 7 22 31 0.775575 0.473149 -0.417867 
24.889 10.5626 256.006 10 27 38 0.76464 0.500521 -0.40596 
17.7015 -1.9322 249.069 32 66 79 -0.0286493 -0.50341 -0.863573 
18.0338 -1.91397 249.047 38 82 93 -0.0286493 -0.50341 -0.863573 
18.3659 -1.89575 249.025 32 71 90 -0.0286493 -0.50341 -0.863573 
18.6988 -1.87749 248.998 44 92 110 -0.206286 0.677798 -0.705716 
19.0437 -1.85844 248.913 21 54 78 -0.648925 0.363069 -0.668639 
19.4515 -1.83533 248.531 16 50 72 -0.648925 0.363069 -0.668639 
21.7581 -1.70553 246.792 42 77 82 0.742182 0.172211 -0.647695 
22.0191 -1.69187 247.094 51 91 94 0.742182 0.172211 -0.647695 
22.2806 -1.67819 247.397 35 66 82 0.742182 0.172211 -0.647695 
22.5767 -1.66226 247.53 16 31 47 0.202756 0.636126 -0.744469 
22.8802 -1.64586 247.626 19 38 55 0.202756 0.636126 -0.744469 
23.1837 -1.62945 247.723 22 41 59 0.202756 0.636126 -0.744469 
23.4911 -1.61279 247.8 12 27 43 -0.0179571 0.592585 -0.805308 
23.8123 -1.59523 247.806 9 23 37 -0.0179571 0.592585 -0.805308 
24.1334 -1.57767 247.812 11 26 42 -0.0179571 0.592585 -0.805308 
24.4543 -1.56012 247.818 12 31 44 -0.0179571 0.592585 -0.805308 
24.7483 -1.54434 247.964 15 35 50 0.705666 0.593812 -0.386553 
24.9874 -1.53216 248.401 18 36 44 0.613595 0.701953 -0.361612 
25.2282 -1.51989 248.834 16 24 32 0.613595 0.701953 -0.361612 
25.4536 -1.50863 249.355 10 19 25 0.7171 0.647448 -0.258029 
25.6635 -1.49841 249.966 11 19 22 0.7171 0.647448 -0.258029 
25.88 -1.48777 250.549 12 22 27 0.81858 0.474745 -0.323331 
28.421 -1.36115 256.547 47 63 69 0.801683 -0.100392 -0.589259 
28.69 -1.34719 256.911 26 52 55 0.801683 -0.100392 -0.589259 
28.9602 -1.33315 257.272 26 52 55 0.796531 0.00137097 -0.604596 
29.2392 -1.31853 257.584 11 27 40 0.634577 -0.0069126 -0.772829 
29.5316 -1.30301 257.818 26 48 56 0.603839 -0.195134 -0.772853 
29.8258 -1.28739 258.045 14 29 31 0.603839 -0.195134 -0.772853 
30.1109 -1.27237 258.329 19 34 43 0.938269 -0.117452 -0.325356 
30.3383 -1.26128 258.979 19 34 43 0.938269 -0.117452 -0.325356 
24.6484 10.5301 255.514 9 21 26 0.76464 0.500521 -0.40596 
24.4066 10.4981 255.035 8 22 27 0.749875 0.507027 -0.424984 
24.1633 10.4667 254.569 18 34 40 0.749875 0.507027 -0.424984 
23.9209 10.4354 254.104 14 31 47 0.749875 0.507027 -0.424984 
17.4226 -1.62619 248.769 35 77 88 0.289521 -0.545818 -0.786295 
17.7279 -1.60966 248.869 43 79 86 0.289521 -0.545818 -0.786295 
18.0444 -1.59248 248.919 52 99 109 0.1462 -0.536066 -0.83142 
18.3619 -1.57524 248.963 60 110 123 0.1462 -0.536066 -0.83142 
18.6832 -1.55778 248.99 47 98 117 0.0333203 0.15741 -0.986971 
19.8355 -1.49442 248.173 39 83 94 -0.643368 0.376806 -0.666404 
20.2401 -1.4721 247.794 47 92 101 -0.643368 0.376806 -0.666404 
20.6433 -1.44986 247.416 26 54 72 -0.643368 0.376806 -0.666404 
21.0449 -1.4277 247.039 32 57 62 -0.643368 0.376806 -0.666404 
21.4346 -1.40624 246.714 40 80 78 0.483817 0.773781 -0.408882 
21.6901 -1.3926 247.042 48 85 91 0.483817 0.773781 -0.408882 
21.9462 -1.37893 247.37 43 79 86 0.483817 0.773781 -0.408882 
22.2026 -1.36524 247.699 21 42 61 0.189141 0.659689 -0.727349 
22.5098 -1.34859 247.779 14 33 50 0.190192 0.358934 -0.91378 
22.8187 -1.33184 247.85 18 43 57 0.190192 0.358934 -0.91378 
23.1275 -1.31509 247.921 17 37 57 0.190192 0.358934 -0.91378 
23.4396 -1.29816 247.975 10 27 38 0.0533936 0.339896 -0.938946 
23.7575 -1.28088 248 11 26 35 0.0533936 0.339896 -0.938946 
24.0753 -1.26361 248.024 18 36 51 0.0533936 0.339896 -0.938946 
24.3929 -1.24635 248.049 15 34 52 0.0533936 0.339896 -0.938946 
24.6671 -1.23163 248.3 35 55 63 0.695473 0.609977 -0.379797 
24.9033 -1.21914 248.755 13 26 30 0.695473 0.609977 -0.379797 
25.1403 -1.20661 249.21 12 19 25 0.695473 0.609977 -0.379797 
25.3653 -1.19479 249.736 9 19 22 0.752636 0.579321 -0.31293 
25.5865 -1.1832 250.289 9 21 26 0.752636 0.579321 -0.31293 
28.4152 -1.03426 256.477 39 58 71 0.82075 -0.222446 -0.526201 
28.6777 -1.0203 256.88 31 58 65 0.82075 -0.222446 -0.526201 
28.9439 -1.00613 257.264 26 50 53 0.813669 0.0698244 -0.57712 
29.222 -0.991247 257.582 9 28 39 0.579237 0.0640434 -0.81264 
29.5181 -0.975308 257.794 41 60 66 0.581434 0.177618 -0.793969 
29.8133 -0.959419 258.013 11 29 37 0.581434 0.177618 -0.793969 
30.1022 -0.94391 258.274 17 34 44 0.930223 0.147896 -0.335875 
30.3313 -0.931959 258.912 18 34 40 0.930223 0.147896 -0.335875 
21.3118 10.3138 253.922 16 42 67 -0.162137 0.36234 -0.917835 
20.9879 10.298 253.884 19 46 66 0.119635 0.426463 -0.896558 
20.666 10.2819 253.837 27 59 81 0.0898883 0.520781 -0.848945 
20.3434 10.2659 253.792 31 66 83 0.0898883 0.520781 -0.848945 
16.7528 -1.34179 248.756 103 121 120 -0.0041191 0.789493 -0.613745 
17.0761 -1.32429 248.776 27 61 76 -0.0041191 0.789493 -0.613745 
17.4065 -1.30642 248.763 28 68 85 -0.139846 -0.537302 -0.831715 
17.7489 -1.28792 248.694 42 88 99 -0.139846 -0.537302 -0.831715 
18.0697 -1.27055 248.723 67 125 129 0.197983 -0.600087 -0.775048 
18.3823 -1.25361 248.789 60 118 127 0.197983 -0.600087 -0.775048 
18.6973 -1.23654 248.844 36 81 103 0.175033 -0.409376 -0.895419 
19.0123 -1.21947 248.898 35 70 94 0.175033 -0.409376 -0.895419 
21.8483 -1.06655 247.768 42 67 81 0.520089 0.719485 -0.460271 
22.1237 -1.05154 248.006 14 34 49 0.0618054 0.711481 -0.699982 
22.4398 -1.03442 248.043 16 34 56 0.0428555 0.515649 -0.855728 
22.7579 -1.01719 248.069 21 45 64 0.0428555 0.515649 -0.855728 
23.0758 -0.999976 248.096 14 33 50 0.0428555 0.515649 -0.855728 
23.3904 -0.982937 248.139 12 31 44 0.140067 0.535203 -0.83303 
23.701 -0.966103 248.202 13 27 39 0.140067 0.535203 -0.83303 
24.0115 -0.94927 248.265 19 40 57 0.140067 0.535203 -0.83303 
24.3221 -0.932438 248.328 17 42 54 0.140067 0.535203 -0.83303 
24.5808 -0.918284 248.663 18 38 46 0.740852 0.509852 -0.437251 
24.8229 -0.90499 249.089 10 20 23 0.740852 0.509852 -0.437251 
25.0656 -0.891657 249.516 9 17 25 0.740852 0.509852 -0.437251 
25.2987 -0.87882 250 10 19 25 0.782227 0.490714 -0.383825 
25.5316 -0.865993 250.492 13 20 26 0.782227 0.490714 -0.383825 
28.4195 -0.707028 256.349 54 66 71 0.836911 -0.244163 -0.489862 
28.6768 -0.692906 256.78 18 44 63 0.846489 -0.074898 -0.527112 
28.9374 -0.678614 257.198 16 41 53 0.846489 -0.074898 -0.527112 
29.209 -0.663754 257.554 10 30 45 0.626305 -0.101206 -0.772981 
29.5013 -0.647829 257.789 22 44 52 0.626305 -0.101206 -0.772981 
29.7909 -0.632039 258.043 12 33 39 0.637746 0.279713 -0.717664 
30.0725 -0.616661 258.349 15 38 52 0.903086 0.229054 -0.363277 
30.3085 -0.603621 258.945 37 42 48 0.903086 0.229054 -0.363277 
20.0235 10.2494 253.734 17 37 54 0.377067 0.553358 -0.742708 
19.7258 10.229 253.569 14 39 58 0.377067 0.553358 -0.742708 
19.4296 10.2085 253.397 9 36 57 0.355796 0.650926 -0.670601 
19.1349 10.1877 253.22 12 36 53 0.355796 0.650926 -0.670601 
16.7019 -1.02345 248.907 40 74 89 -0.295808 0.441389 -0.847156 
17.0549 -1.00465 248.794 36 73 92 -0.295808 0.441389 -0.847156 
17.4074 -0.985879 248.681 29 69 92 -0.295808 0.441389 -0.847156 
17.7675 -0.966761 248.531 34 76 99 -0.346229 -0.415161 -0.841289 
18.1041 -0.94873 248.486 60 114 123 0.196325 -0.546361 -0.814215 
18.4167 -0.931799 248.551 53 102 119 0.201071 -0.590934 -0.78126 
18.7287 -0.914896 248.618 28 67 88 0.201071 -0.590934 -0.78126 
19.0407 -0.897993 248.685 24 61 85 0.201071 -0.590934 -0.78126 
22.0658 -0.736056 248.208 12 34 49 0.0401115 0.524216 -0.85064 
22.3846 -0.718863 248.233 18 43 64 0.0338314 0.466874 -0.883677 
22.7039 -0.701646 248.255 15 37 54 0.0338314 0.466874 -0.883677 
23.023 -0.684437 248.277 14 30 44 0.0338314 0.466874 -0.883677 
23.3359 -0.667514 248.33 11 26 35 0.176992 0.492305 -0.852238 
23.6446 -0.650775 248.404 8 30 47 0.176992 0.492305 -0.852238 
23.9533 -0.634037 248.478 16 40 63 0.176992 0.492305 -0.852238 
24.2628 -0.617262 248.548 23 51 62 0.141665 0.586046 -0.797798 
24.5102 -0.603271 248.943 10 20 32 0.704761 0.5721 -0.41954 
24.7525 -0.589495 249.37 10 18 26 0.704761 0.5721 -0.41954 
24.9957 -0.575672 249.797 10 19 25 0.695393 0.575898 -0.429849 
25.2416 -0.561722 250.215 12 18 26 0.695393 0.575898 -0.429849 
25.4881 -0.547732 250.633 13 20 33 0.695393 0.575898 -0.429849 
28.4247 -0.380091 256.215 85 98 94 0.854364 -0.0231646 -0.519159 
28.6823 -0.365491 256.644 19 40 57 0.852238 -0.176992 -0.492305 
28.9389 -0.350922 257.084 8 23 34 0.852238 -0.176992 -0.492305 
29.2029 -0.336023 257.485 12 25 39 0.707763 -0.213107 -0.673541 
29.4858 -0.320302 257.777 12 31 44 0.707763 -0.213107 -0.673541 
29.7664 -0.304669 258.086 16 32 43 0.726088 0.304281 -0.616611 
30.0369 -0.289466 258.461 7 22 33 0.878519 0.26672 -0.396313 
30.2805 -0.275414 259.01 27 31 33 0.878519 0.26672 -0.396313 
18.8449 10.1662 253.021 14 40 56 0.414097 0.650249 -0.636945 
18.5574 10.1444 252.812 13 38 52 0.414097 0.650249 -0.636945 
18.2702 10.1226 252.604 18 43 57 0.416861 0.646052 -0.639409 
16.3181 -0.722442 249.077 61 93 99 -0.418926 -0.113488 -0.9009 
16.6853 -0.703319 248.903 37 85 100 -0.418926 -0.113488 -0.9009 
17.0516 -0.684236 248.73 57 97 118 -0.418926 -0.113488 -0.9009 
17.4173 -0.665193 248.558 37 78 98 -0.418926 -0.113488 -0.9009 
17.7817 -0.646204 248.387 28 76 89 -0.404232 0.155693 -0.901308 
18.1248 -0.628075 248.312 72 127 141 0.221462 0.268819 -0.937385 
18.4325 -0.611356 248.398 54 106 121 0.293443 -0.0788546 -0.952719 
18.7388 -0.594691 248.491 35 70 94 0.293443 -0.0788546 -0.952719 
19.0452 -0.578022 248.584 31 68 92 0.293443 -0.0788546 -0.952719 
19.3731 -0.560506 248.575 61 113 113 -0.153601 -0.0821585 -0.984712 
19.7104 -0.542621 248.521 42 79 98 -0.153601 -0.0821585 -0.984712 
20.0472 -0.524761 248.468 17 46 74 -0.116074 0.302861 -0.94594 
20.3799 -0.507068 248.433 16 39 58 -0.116074 0.302861 -0.94594 
20.7175 -0.489186 248.372 12 44 64 -0.23162 0.273733 -0.9335 
21.0587 -0.471173 248.293 32 63 67 -0.23162 0.273733 -0.9335 
21.3961 -0.453309 248.229 28 55 64 -0.137425 -0.319751 -0.937483 
21.7316 -0.435528 248.174 12 33 50 -0.137425 -0.319751 -0.937483 
22.0577 -0.418111 248.163 17 37 52 0.189696 -0.357998 -0.91425 
22.3699 -0.401239 248.221 19 42 61 0.189696 -0.357998 -0.91425 
22.6766 -0.384575 248.306 13 32 49 0.260316 0.345617 -0.901546 
22.9813 -0.367986 248.401 14 32 45 0.260316 0.345617 -0.901546 
23.2819 -0.351556 248.517 14 31 42 0.344395 0.350517 -0.870936 
23.581 -0.335182 248.642 14 40 56 0.344395 0.350517 -0.870936 
23.8821 -0.31873 248.757 16 47 58 0.172861 0.720508 -0.671556 
24.1771 -0.302505 248.905 21 41 49 0.620681 0.676957 -0.395581 
24.4238 -0.288106 249.306 10 18 26 0.692218 0.54877 -0.468706 
24.674 -0.27356 249.693 13 22 30 0.692218 0.54877 -0.468706 
24.9262 -0.258927 250.075 12 22 27 0.66582 0.558484 -0.494753 
25.1827 -0.244116 250.437 10 18 26 0.66582 0.558484 -0.494753 
25.4399 -0.229269 250.8 9 20 27 0.66582 0.558484 -0.494753 
25.6593 -0.215817 251.373 10 27 38 0.882491 -0.44197 -0.160848 
25.8246 -0.204353 252.249 26 36 32 0.882491 -0.44197 -0.160848 
28.4126 -0.054116 256.183 94 102 91 0.889117 -0.0790634 -0.4508 
28.6636 -0.039288 256.65 24 36 48 0.840228 0.256523 -0.477716 
28.9177 -0.024335 257.106 9 24 35 0.840228 0.256523 -0.477716 
29.1781 -0.009135 257.529 12 25 39 0.735447 0.279183 -0.617393 
29.4538 0.006621 257.864 15 28 37 0.735447 0.279183 -0.617393 
29.7304 0.022419 258.198 12 23 32 0.748865 0.146157 -0.646405 
30.0008 0.038013 258.575 8 20 32 0.898677 0.134448 -0.417496 
30.247 0.052779 259.108 37 45 50 0.896876 0.140714 -0.4193 
17.9797 10.1014 252.412 19 48 57 0.325968 0.64707 -0.689235 
17.6753 10.0825 252.286 31 60 69 0.311887 -0.207454 -0.927194 
17.3655 10.0646 252.187 31 63 74 0.311887 -0.207454 -0.927194 
17.0556 10.0466 252.087 29 51 59 0.311887 -0.207454 -0.927194 
16.7162 -0.38157 248.687 50 107 121 -0.10193 -0.845592 -0.524008 
17.0653 -0.363411 248.591 48 91 111 -0.10193 -0.845592 -0.524008 
17.4139 -0.345277 248.495 36 73 99 -0.10193 -0.845592 -0.524008 
17.762 -0.32717 248.399 28 84 100 -0.10193 -0.845592 -0.524008 
18.0911 -0.309707 248.387 72 121 131 0.204209 0.0271492 -0.978551 
18.4034 -0.292818 248.453 56 99 119 0.204209 0.0271492 -0.978551 
18.7156 -0.275929 248.519 40 72 92 0.204209 0.0271492 -0.978551 
19.0278 -0.259041 248.584 22 67 89 0.204209 0.0271492 -0.978551 
19.3527 -0.241736 248.59 45 101 112 -0.0707153 0.0137209 -0.997402 
19.6835 -0.224235 248.567 37 73 96 -0.0707153 0.0137209 -0.997402 
20.0141 -0.206748 248.543 15 45 65 -0.0707153 0.0137209 -0.997402 
20.3456 -0.189239 248.515 18 45 61 -0.0850899 -0.156997 -0.983927 
20.6829 -0.171544 248.456 14 49 66 -0.202292 -0.150753 -0.967652 
21.0238 -0.153739 248.379 40 69 71 -0.247487 0.152198 -0.956862 
21.3659 -0.135904 248.293 32 60 72 -0.247487 0.152198 -0.956862 
21.7076 -0.118092 248.208 15 35 50 -0.247487 0.152198 -0.956862 
22.0342 -0.100775 248.195 21 44 65 0.297559 0.218586 -0.929343 
22.3377 -0.084197 248.296 25 48 67 0.297559 0.218586 -0.929343 
22.6393 -0.067679 248.407 16 33 50 0.285529 0.594986 -0.751309 
22.9379 -0.051255 248.534 15 32 49 0.285529 0.594986 -0.751309 
23.2275 -0.035112 248.707 12 30 45 0.408715 0.597352 -0.690016 
23.5154 -0.019018 248.891 17 42 63 0.291773 0.754146 -0.58833 
23.807 -0.002798 249.057 15 37 54 0.291773 0.754146 -0.58833 
24.0829 0.012937 249.305 9 24 35 0.554148 0.719565 -0.418506 
24.34 0.028102 249.655 4 16 21 0.692227 0.401459 -0.59971 
24.6042 0.043505 249.971 14 27 36 0.692227 0.401459 -0.59971 
24.8686 0.058926 250.289 9 18 31 0.699302 0.39842 -0.593497 
25.1329 0.07436 250.612 10 22 27 0.699302 0.39842 -0.593497 
25.3975 0.089815 250.937 9 21 33 0.746964 0.278718 -0.603623 
25.6344 0.104455 251.415 9 25 36 0.945791 0.215514 -0.242968 
25.8353 0.118043 252.096 29 40 36 0.926284 -0.251847 -0.280304 
26.0403 0.131792 252.763 31 38 30 0.926284 -0.251847 -0.280304 
28.406 0.271932 256.118 109 109 84 0.957826 -0.179343 -0.224511 
28.6252 0.286385 256.774 79 85 88 0.637452 0.73189 -0.240815 
28.8488 0.301001 257.413 9 25 34 0.637452 0.73189 -0.240815 
29.1065 0.316589 257.855 15 27 39 0.33953 0.825926 -0.450074 
29.3968 0.333094 258.104 9 24 35 0.33953 0.825926 -0.450074 
29.6875 0.349622 258.354 9 21 33 0.33953 0.825926 -0.450074 
29.9746 0.366065 258.628 11 23 37 0.922984 0.0168286 -0.384469 
30.2169 0.381329 259.186 17 29 34 0.883177 0.246572 -0.398999 
26.2301 10.3754 257.88 11 21 24 0.864126 0.361978 -0.349655 
25.9895 10.3423 257.361 3 21 27 0.730769 0.414048 -0.542716 
25.7247 10.3143 256.983 11 22 31 0.730769 0.414048 -0.542716 
25.4589 10.2867 256.616 7 20 29 0.647753 0.556899 -0.519885 
25.2019 10.2575 256.204 15 25 35 0.753796 0.518337 -0.403878 
16.7558 -0.060146 248.433 51 108 122 -0.0313114 0.0766589 -0.996566 
17.0851 -0.042776 248.424 53 114 129 -0.0313114 0.0766589 -0.996566 
17.4143 -0.025417 248.415 43 89 109 -0.0313114 0.0766589 -0.996566 
17.7432 -0.008071 248.406 72 135 143 -0.0313114 0.0766589 -0.996566 
18.0662 0.009107 248.423 81 140 153 0.14794 -0.199398 -0.968687 
18.3831 0.026113 248.467 69 111 129 0.14794 -0.199398 -0.968687 
18.6998 0.043114 248.512 42 76 96 0.14794 -0.199398 -0.968687 
19.0165 0.060111 248.556 32 67 86 0.14794 -0.199398 -0.968687 
19.3432 0.077372 248.554 43 93 112 -0.0792295 -0.188932 -0.978789 
19.6755 0.094781 248.523 32 62 89 -0.0792295 -0.188932 -0.978789 
20.0075 0.112174 248.493 22 51 74 -0.0792295 -0.188932 -0.978789 
20.3384 0.12953 248.467 20 50 70 -0.0246997 0.380895 -0.924288 
20.6706 0.146913 248.433 27 62 79 -0.172777 0.344149 -0.922881 
21.0065 0.164386 248.379 44 72 76 -0.163566 0.274412 -0.947599 
21.342 0.181838 248.326 41 73 86 -0.163566 0.274412 -0.947599 
21.6772 0.199271 248.273 19 40 57 -0.163566 0.274412 -0.947599 
21.9939 0.216227 248.309 24 52 72 0.390221 0.352909 -0.850402 
22.2893 0.232637 248.452 21 46 65 0.390221 0.352909 -0.850402 
22.5847 0.249052 248.595 14 30 45 0.382599 0.453036 -0.805219 
22.879 0.265446 248.745 15 29 43 0.382599 0.453036 -0.805219 
23.1715 0.2818 248.905 14 36 53 0.40825 0.453432 -0.792295 
23.4635 0.29815 249.069 10 28 41 0.441287 0.377563 -0.814071 
23.7554 0.314504 249.234 9 23 30 0.441287 0.377563 -0.814071 
24.0314 0.33048 249.484 6 22 36 0.711923 0.358416 -0.603907 
24.2946 0.346163 249.802 10 24 31 0.688805 0.445305 -0.572058 
24.5567 0.361839 250.13 11 27 40 0.688805 0.445305 -0.572058 
24.8241 0.377658 250.434 8 24 32 0.624012 0.456717 -0.63405 
25.0966 0.393616 250.714 8 21 30 0.624012 0.456717 -0.63405 
25.367 0.409542 251.008 9 24 35 0.734438 0.149301 -0.66205 
25.6149 0.424969 251.427 13 34 46 0.934851 0.129273 -0.330668 
25.832 0.439724 252.019 33 42 41 0.923556 -0.15509 -0.3507 
26.0535 0.454623 252.595 37 42 39 0.923556 -0.15509 -0.3507 
28.599 0.612636 256.826 90 98 81 0.932385 0.313583 -0.179787 
28.774 0.62703 257.755 11 25 32 0.932385 0.313583 -0.179787 
29.0467 0.643408 258.109 12 25 39 0.33043 0.466397 -0.820542 
29.3563 0.660523 258.243 10 26 39 0.33043 0.466397 -0.820542 
29.666 0.677646 258.377 11 22 31 0.33043 0.466397 -0.820542 
29.9596 0.694472 258.612 11 21 40 0.917086 0.102812 -0.385204 
30.1983 0.710298 259.192 10 20 23 0.923181 0.0599468 -0.379663 
24.9584 10.226 255.724 9 22 31 0.80341 0.392885 -0.447408 
24.7137 10.1949 255.256 10 18 26 0.80341 0.392885 -0.447408 
24.4665 10.1646 254.807 6 25 31 0.784626 0.399593 -0.474011 
16.7405 0.259389 248.424 49 107 118 0.0180334 -0.241647 -0.970197 
17.0674 0.276593 248.426 68 130 136 0.0180334 -0.241647 -0.970197 
17.3941 0.293787 248.428 52 107 121 0.0180334 -0.241647 -0.970197 
17.7213 0.310986 248.427 82 141 147 -0.0330755 0.0608163 -0.997601 
18.0461 0.328126 248.436 84 143 150 0.101177 0.0693464 -0.992449 
18.361 0.34505 248.489 77 127 135 0.133129 0.519351 -0.844128 
18.6746 0.361946 248.549 42 78 99 0.133129 0.519351 -0.844128 
18.9882 0.378839 248.608 39 76 88 0.133129 0.519351 -0.844128 
19.3111 0.395925 248.623 49 98 108 -0.0451095 0.479801 -0.876217 
19.6386 0.413099 248.616 36 74 90 -0.0451095 0.479801 -0.876217 
19.9659 0.430261 248.609 24 59 78 -0.0451095 0.479801 -0.876217 
20.293 0.447412 248.602 17 52 71 -0.0451095 0.479801 -0.876217 
20.6291 0.464734 248.55 21 55 75 -0.202563 0.114492 -0.972553 
20.9682 0.482107 248.482 21 58 70 -0.202563 0.114492 -0.972553 
21.307 0.499458 248.413 17 47 65 -0.202563 0.114492 -0.972553 
21.6454 0.516789 248.345 17 44 60 -0.202563 0.114492 -0.972553 
21.9598 0.533652 248.394 20 47 68 0.477325 0.172901 -0.861549 
22.2509 0.550075 248.558 15 36 56 0.477325 0.172901 -0.861549 
22.5421 0.566511 248.723 9 23 37 0.477325 0.172901 -0.861549 
22.8315 0.582921 248.898 15 29 43 0.500156 0.355416 -0.789635 
23.1191 0.599309 249.084 16 33 49 0.389953 0.587398 -0.709155 
23.4096 0.615758 249.257 6 21 30 0.389953 0.587398 -0.709155 
23.7003 0.63222 249.43 8 21 30 0.389953 0.587398 -0.709155 
23.9723 0.648367 249.702 8 23 34 0.620426 0.562948 -0.546042 
24.2361 0.664394 250.019 10 28 41 0.620426 0.562948 -0.546042 
24.5058 0.680543 250.308 18 33 49 0.700078 0.21361 -0.681368 
24.7855 0.696878 250.548 7 23 38 0.569915 0.217772 -0.792321 
25.071 0.713323 250.759 11 23 35 0.629208 -0.195377 -0.75228 
25.3528 0.729724 250.991 13 24 38 0.629208 -0.195377 -0.75228 
25.6149 0.745828 251.333 10 33 45 0.925608 -0.127907 -0.356215 
25.8365 0.761332 251.9 27 46 43 0.903763 -0.235066 -0.357709 
26.0612 0.776933 252.457 43 50 42 0.903763 -0.235066 -0.357709 
28.621 0.939621 256.591 90 88 73 0.888729 -0.437945 -0.13552 
28.7819 0.954954 257.603 78 85 84 0.888729 -0.437945 -0.13552 
29.0381 0.971497 258.055 13 27 39 0.366307 -0.691549 -0.622558 
29.3432 0.988633 258.216 10 27 38 0.366307 -0.691549 -0.622558 
29.6485 1.00578 258.377 11 25 36 0.366307 -0.691549 -0.622558 
29.9375 1.02277 258.64 12 22 34 0.917471 -0.0355405 -0.396211 
30.1797 1.03929 259.198 17 30 32 0.917471 -0.0355405 -0.396211 
24.2179 10.1347 254.372 11 30 41 0.784626 0.399593 -0.474011 
23.9701 10.1049 253.936 10 27 38 0.808191 0.345912 -0.476626 
23.6726 10.0846 253.767 11 27 40 0.189662 0.670757 -0.717017 
16.7422 0.57918 248.339 51 106 120 0.120812 -0.384656 -0.91512 
17.0617 0.596165 248.374 66 129 139 0.120812 -0.384656 -0.91512 
17.3811 0.613143 248.409 55 115 128 0.120812 -0.384656 -0.91512 
17.7035 0.630166 248.429 75 135 139 0.0484077 0.0570135 -0.997199 
18.0205 0.6471 248.474 75 127 142 0.249927 0.0690753 -0.965798 
18.3294 0.663908 248.555 78 133 145 0.251569 0.0796423 -0.964557 
18.6383 0.680717 248.637 49 87 103 0.251569 0.0796423 -0.964557 
18.9472 0.697526 248.719 62 99 97 0.251569 0.0796423 -0.964557 
19.2702 0.71454 248.735 36 74 82 -0.0242873 0.0601903 -0.997891 
19.5978 0.731612 248.728 48 87 99 -0.0242873 0.0601903 -0.997891 
19.9252 0.748674 248.721 29 60 82 -0.0242873 0.0601903 -0.997891 
20.2527 0.765729 248.712 13 49 70 -0.0660607 0.31476 -0.94687 
20.5919 0.782931 248.646 20 52 72 -0.241689 0.120198 -0.96288 
20.9343 0.800162 248.563 21 46 65 -0.241689 0.120198 -0.96288 
21.2762 0.817369 248.48 21 47 63 -0.241689 0.120198 -0.96288 
21.6177 0.834554 248.397 23 51 70 -0.241689 0.120198 -0.96288 
21.9301 0.851361 248.456 21 46 65 0.525524 0.188225 -0.829696 
22.2171 0.867859 248.641 20 35 51 0.525524 0.188225 -0.829696 
22.5044 0.884372 248.826 11 23 40 0.525524 0.188225 -0.829696 
22.7931 0.900914 249.006 10 24 42 0.598078 -0.257221 -0.759039 
23.0789 0.917434 249.202 10 21 36 0.500394 0.325653 -0.802219 
23.3668 0.933991 249.388 9 18 31 0.500394 0.325653 -0.802219 
23.6549 0.950563 249.575 13 25 32 0.500394 0.325653 -0.802219 
23.9298 0.967009 249.833 8 23 34 0.665314 0.318898 -0.675027 
24.2015 0.983444 250.11 8 36 54 0.665314 0.318898 -0.675027 
24.4773 0.999942 250.368 22 45 59 0.650001 -0.189007 -0.736053 
24.7601 1.01653 250.591 9 24 40 0.592226 -0.194348 -0.781983 
25.0466 1.03317 250.797 5 24 37 0.568523 0.0491316 -0.821199 
25.3345 1.04983 250.997 12 26 38 0.568523 0.0491316 -0.821199 
25.6048 1.06636 251.294 8 32 48 0.913257 0.0549832 -0.403657 
25.8346 1.08258 251.816 33 57 59 0.913257 0.0549832 -0.403657 
26.0753 1.09894 252.285 44 51 43 0.779478 -0.484541 -0.397032 
29.0619 1.29957 257.805 18 30 42 0.578349 -0.481119 -0.658815 
29.3531 1.31675 258.049 16 35 46 0.578349 -0.481119 -0.658815 
29.6447 1.33396 258.292 15 29 35 0.578349 -0.481119 -0.658815 
29.9271 1.35117 258.595 13 33 36 0.916683 -0.0248459 -0.398842 
30.1624 1.36831 259.195 16 24 28 0.886685 0.295562 -0.355574 
23.3617 10.0667 253.669 12 25 41 0.189662 0.670757 -0.717017 
16.7535 0.89885 248.212 51 108 126 0.188695 -0.378831 -0.906025 
17.0675 0.91572 248.27 61 117 140 0.188695 -0.378831 -0.906025 
17.382 0.932593 248.326 51 108 123 0.155689 -0.140743 -0.977728 
17.6983 0.949479 248.375 55 109 119 0.155689 -0.140743 -0.977728 
18.0108 0.966329 248.44 54 106 122 0.288786 -0.141035 -0.946949 
18.3176 0.983126 248.53 46 90 101 0.288786 -0.141035 -0.946949 
18.6258 0.999936 248.615 63 109 120 0.268465 -0.259942 -0.927554 
18.9341 1.01675 248.7 71 111 113 0.268465 -0.259942 -0.927554 
19.2516 1.03364 248.741 58 107 110 0.0878136 -0.25326 -0.963405 
19.5725 1.05055 248.766 60 100 116 0.0878136 -0.25326 -0.963405 
19.8933 1.06746 248.791 28 58 78 0.0878136 -0.25326 -0.963405 
20.2175 1.08438 248.798 24 54 79 -0.0036225 0.271688 -0.962379 
20.5584 1.10141 248.725 20 44 63 -0.224658 0.380303 -0.897162 
20.8999 1.11844 248.646 17 39 54 -0.224658 0.380303 -0.897162 
21.2411 1.13543 248.568 12 33 52 -0.224658 0.380303 -0.897162 
21.5818 1.15241 248.489 20 44 61 -0.224658 0.380303 -0.897162 
21.8976 1.16922 248.532 33 55 70 0.303897 0.489699 -0.817215 
22.1975 1.18595 248.653 14 31 47 0.303897 0.489699 -0.817215 
22.4976 1.20267 248.774 6 27 39 0.303897 0.489699 -0.817215 
22.7959 1.2194 248.905 32 53 70 0.588786 0.531426 -0.609031 
23.066 1.236 249.18 11 23 37 0.588786 0.531426 -0.609031 
23.3365 1.25263 249.456 9 23 30 0.588786 0.531426 -0.609031 
23.6075 1.26929 249.732 11 22 31 0.588786 0.531426 -0.609031 
23.8925 1.28602 249.937 14 29 38 0.454756 0.544707 -0.704621 
24.1793 1.30278 250.136 10 30 50 0.454756 0.544707 -0.704621 
24.4686 1.31956 250.323 23 57 70 0.375247 -0.478319 -0.793978 
24.7553 1.33635 250.525 18 37 50 0.630916 -0.446829 -0.634263 
25.0364 1.35315 250.76 12 29 47 0.626968 0.0825339 -0.774661 
25.3187 1.36996 250.99 10 25 41 0.626968 0.0825339 -0.774661 
25.5919 1.38679 251.271 14 34 49 0.841383 0.0839959 -0.533872 
25.8441 1.40362 251.67 30 59 61 0.841383 0.0839959 -0.533872 
26.1011 1.4205 252.048 53 63 55 0.710268 -0.477393 -0.517315 
26.3286 1.43741 252.593 46 55 49 0.931647 -0.320731 -0.170779 
29.0813 1.62701 257.583 78 89 85 0.66582 -0.558484 -0.494753 
29.3549 1.64448 257.931 19 39 52 0.66582 -0.558484 -0.494753 
29.6291 1.66199 258.28 16 32 41 0.66582 -0.558484 -0.494753 
29.9 1.67955 258.654 7 32 39 0.928877 0.124489 -0.348842 
30.125 1.69744 259.318 9 19 22 0.852799 0.433339 -0.291463 
23.051 10.0488 253.57 19 38 51 0.189662 0.670757 -0.717017 
16.7598 1.21817 248.106 70 127 133 0.163196 0.0551815 -0.985049 
17.0749 1.23501 248.159 55 106 129 0.163196 0.0551815 -0.985049 
17.3881 1.25185 248.221 44 93 117 0.213418 -0.254725 -0.943169 
17.7004 1.26868 248.286 43 89 100 0.213418 -0.254725 -0.943169 
18.0113 1.2855 248.358 64 115 120 0.268662 -0.257291 -0.928236 
18.3194 1.30232 248.443 41 85 98 0.268662 -0.257291 -0.928236 
18.626 1.31914 248.534 53 98 107 0.310464 0.0498275 -0.949278 
18.9308 1.33595 248.635 84 138 141 0.310464 0.0498275 -0.949278 
19.2379 1.35277 248.724 63 108 121 0.259446 0.0484134 -0.964543 
19.5464 1.3696 248.808 34 68 87 0.259446 0.0484134 -0.964543 
19.8565 1.38642 248.884 26 51 72 0.150371 0.477392 -0.865728 
20.1692 1.40325 248.947 24 49 70 0.150371 0.477392 -0.865728 
20.5103 1.4201 248.874 21 37 55 -0.224997 0.383819 -0.895578 
20.8529 1.43693 248.791 12 31 48 -0.24099 0.292325 -0.925457 
21.1954 1.45374 248.707 12 31 44 -0.24099 0.292325 -0.925457 
21.5375 1.47052 248.623 22 41 51 -0.24099 0.292325 -0.925457 
21.8519 1.4873 248.673 26 52 64 0.276471 0.391289 -0.877757 
22.1556 1.50409 248.776 9 23 37 0.276471 0.391289 -0.877757 
22.4594 1.52089 248.88 15 36 41 0.276471 0.391289 -0.877757 
22.7583 1.53769 249.008 37 59 69 0.698024 0.293651 -0.653094 
23.021 1.55458 249.322 13 25 32 0.636502 0.538579 -0.552085 
23.2832 1.57151 249.64 7 20 29 0.636502 0.538579 -0.552085 
23.5484 1.58847 249.947 6 18 28 0.182603 0.547809 -0.816432 
23.8579 1.60531 250.027 8 21 30 0.182603 0.547809 -0.816432 
24.1675 1.62216 250.108 10 31 48 0.182603 0.547809 -0.816432 
24.477 1.639 250.188 24 54 67 0.182603 0.547809 -0.816432 
24.7726 1.65591 250.343 23 51 62 0.742223 -0.00971133 -0.670082 
25.0416 1.67296 250.639 15 39 55 0.742223 -0.00971133 -0.670082 
25.3112 1.69004 250.937 12 31 44 0.742223 -0.00971133 -0.670082 
25.5808 1.70715 251.238 18 39 56 0.753843 -0.00691599 -0.657019 
25.8496 1.72431 251.546 28 59 68 0.753843 -0.00691599 -0.657019 
26.1189 1.7415 251.855 60 71 60 0.753843 -0.00691599 -0.657019 
26.3691 1.75885 252.273 68 73 56 0.942026 -0.316681 -0.110905 
26.5126 1.77705 253.291 19 26 20 0.986767 0.0547557 -0.152617 
29.1166 1.95368 257.264 88 91 68 0.749053 -0.529418 -0.398293 
29.3722 1.9717 257.719 42 62 70 0.749053 -0.529418 -0.398293 
29.6304 1.98976 258.164 18 34 47 0.836166 -0.04313 -0.546778 
29.8844 2.00794 258.641 21 38 42 0.962598 -0.0183469 -0.27031 
30.0903 2.02687 259.424 6 17 19 0.923153 0.303913 -0.235425 
22.7354 10.0318 253.497 17 40 52 -0.180438 0.577706 -0.796051 
16.7401 1.53725 248.117 67 120 132 0.127984 -0.0189193 -0.991596 
17.0577 1.55406 248.159 43 89 109 0.144557 -0.115403 -0.982744 
17.3746 1.57087 248.204 42 91 108 0.144557 -0.115403 -0.982744 
17.6914 1.58768 248.249 60 107 110 0.144557 -0.115403 -0.982744 
18.0047 1.60449 248.309 69 120 123 0.336865 -0.112288 -0.934833 
18.3078 1.62133 248.416 47 87 103 0.336865 -0.112288 -0.934833 
18.6109 1.63818 248.524 48 87 99 0.364608 0.200318 -0.909359 
18.9107 1.65505 248.648 91 140 143 0.364608 0.200318 -0.909359 
19.2131 1.67191 248.76 65 97 115 0.31333 0.198114 -0.928749 
19.5168 1.68877 248.866 28 53 72 0.31333 0.198114 -0.928749 
19.8219 1.70563 248.966 23 48 76 0.273498 0.338546 -0.900325 
20.129 1.72249 249.057 25 45 66 -0.238465 0.249622 -0.938522 
20.4722 1.73914 248.975 15 33 46 -0.238465 0.249622 -0.938522 
20.8154 1.75576 248.89 15 33 46 -0.259283 0.0881305 -0.961772 
21.1593 1.77235 248.799 10 31 44 -0.259283 0.0881305 -0.961772 
21.5028 1.78893 248.708 17 37 45 -0.259283 0.0881305 -0.961772 
21.7933 1.80586 248.878 31 50 61 0.644357 0.149394 -0.74999 
22.0695 1.82291 249.119 7 20 27 0.644357 0.149394 -0.74999 
22.3522 1.83994 249.331 18 35 46 0.217966 0.858334 -0.464493 
22.6343 1.857 249.547 11 25 32 0.336618 0.851628 -0.40177 
22.921 1.87403 249.742 10 23 32 0.502985 0.193687 -0.842313 
23.2115 1.89106 249.919 10 20 32 0.502985 0.193687 -0.842313 
23.5072 1.90805 250.071 9 21 33 0.021682 0.158621 -0.987101 
23.8304 1.92477 250.081 11 24 34 0.021682 0.158621 -0.987101 
24.1535 1.94148 250.091 11 29 44 0.021682 0.158621 -0.987101 
24.4763 1.95819 250.101 10 38 58 0.021682 0.158621 -0.987101 
24.7818 1.97508 250.202 30 70 81 0.791877 -0.0350388 -0.609675 
25.0429 1.99251 250.541 24 53 69 0.791877 -0.0350388 -0.609675 
25.3046 2.00997 250.88 17 37 54 0.791877 -0.0350388 -0.609675 
25.5722 2.0274 251.191 20 45 59 0.628671 -0.046831 -0.77626 
25.8556 2.04467 251.419 32 66 72 0.628671 -0.046831 -0.77626 
26.1393 2.06196 251.648 50 60 58 0.628671 -0.046831 -0.77626 
26.4268 2.07922 251.858 89 93 75 0.476675 -0.560302 -0.67738 
26.577 2.09852 252.835 59 66 51 0.852919 -0.509442 -0.114011 
26.7236 2.11804 253.847 38 42 36 0.852919 -0.509442 -0.114011 
29.3889 2.2984 257.511 56 73 70 0.87648 -0.350896 -0.329629 
29.6257 2.31737 258.085 14 32 41 0.903886 0.12511 -0.409068 
29.8581 2.33653 258.695 25 34 40 0.968019 0.110667 -0.22515 
30.0507 2.35669 259.561 10 15 21 0.933947 0.294563 -0.202425 
22.392 10.0197 253.565 19 52 62 -0.180438 0.577706 -0.796051 
15.3647 1.78975 248.327 29 61 76 -0.114879 -0.54531 -0.830325 
15.706 1.80642 248.269 21 57 71 -0.114879 -0.54531 -0.830325 
16.0469 1.82307 248.211 47 98 108 -0.114879 -0.54531 -0.830325 
16.3874 1.8397 248.154 64 129 139 -0.114879 -0.54531 -0.830325 
16.7252 1.85633 248.107 58 110 124 0.152297 -0.245 -0.957487 
